X,Y,Z
0.07424170051555767,0.050509260075001935,1.0613206160665876
-0.04925843471048597,0.16274233922114667,0.5650201078075185
0.6730488568049747,-0.3532959838836818,0.9373911059342253
-0.024579216156751512,-0.26825177958970936,0.8833523176092573
0.14861649069323693,-0.07629719314075771,0.8633551710993916
0.17406419355887934,-0.26878689031731867,0.7183245865763617
-0.41422544503344105,-0.05087839738540002,1.0571905264043293
0.5350327161595274,0.06377753635393102,1.063262463258536
-0.26781315097504027,0.10691300702135978,0.6467753930390219
0.07408053009144189,-0.27928978847567376,0.9655043031053682
0.3320324435085514,-0.3295403315316042,0.867555978025868
-0.2024311187078973,0.29542959958539095,0.8895946368480705
0.494064031435812,-0.3485121175209247,0.9111746464530746
0.26173460055341585,0.16463358926238839,0.6858870976117274
0.41131040326791213,-0.23524509140393857,1.1917817132111108
-0.30490515451637534,0.0582536998793055,0.7674643221668832
-0.2930410823159464,0.08186318820293137,0.9928560190550837
-0.24606701201523556,-0.24260590709047058,0.7445726795960721
0.6581259412479544,0.3455506819441114,1.1667866442990085
-0.1467138730165896,-0.26353457032916894,0.6920100566539655
-0.14343545463703863,-0.03350754728242944,1.05554005013546
0.6901052028195103,0.2852958876201735,1.0413028766362509
-0.04793042387577941,-0.2618868391632952,0.9049515412407294
-0.005807962486239959,-0.013148190558484832,1.0753750510775717
0.6339255641397703,0.1008524510316085,1.087778897820569
0.6234820725989155,-0.10403934800866867,1.0765556066892006
-0.32572199335704266,0.23119755701740757,0.9751979629860822
0.0954963296381514,0.16976754095476906,0.5965247890672497
-0.3421980484716122,0.2323612271521297,0.9754048082340021
-0.031279765063828784,-0.2628643516260725,0.9298108549744545
-0.2774820562346034,0.20250341180220627,0.7428321481557665
-0.37936210285555894,-0.20454821181413602,0.9398136039607826
-0.2832626659105975,-0.011208220826076863,0.6063005338482338
0.5832383955749505,0.11212184117610441,1.035000049159862
-0.2859779616428385,-0.21924400851496686,0.9447388616218163
0.6331568350574895,-0.01578297384797411,1.1037388772799595
0.6412822689386746,-0.000664250047939155,1.0231569113424415
-0.22922888692101204,0.005937084069171363,1.0248840191845747
0.4333619012913144,0.16564527132564433,1.1056590443803522
-0.28642955120240166,-0.0529344233130145,1.018836095065872
-0.20593371636746718,-0.055227163791162444,1.044097859283024
0.5966645206860905,-0.2516895510934357,1.043275093109582
0.052526904648774825,-0.26617673359923083,1.0835770355941292
0.5905804382280634,0.16938474986500215,1.0460916286340523
0.033611734976622086,-0.17415745782766384,1.1045114082318528
0.014476583380567228,-0.17431920192661535,1.0975695470445443
0.45462816745721646,-0.21368155284960338,1.2031508213891275
-0.007539501047450645,0.19050781653249346,1.0281446997472474
0.6123161873784029,0.36443313824129503,1.1598277722137902
-0.2643058434927683,0.1489639016485634,0.9991017145388291
-0.12784954720151998,-0.25079945240544455,0.8658800047094027
-0.006265693887170638,-0.2795196052045801,0.7643778160724514
-0.12724634457880496,0.14591638535721835,1.0229290425753068
0.03430715930594495,-0.279042824514592,0.8631017957273031
-0.5138800890546331,-0.038514825818446397,0.9499848782866713
0.43698633911853746,0.19103091318121165,0.9235377422783853
0.47579996402217895,-0.33154965247586404,1.0216715584983027
0.6568913096961105,0.07549397263267776,0.9103333765718465
0.07698992767830688,-0.03900490178538952,1.0971269678195446
-0.2825693963656912,-0.03153258609825919,0.6003425361480902
0.6509751349547054,0.0721664942209238,1.0836662045992982
0.5799280493492148,-0.29470864390175316,1.1845268448243182
-0.22615165203420678,-0.2261798399365309,1.0044750864096947
0.6026361252051348,-0.17003313701211306,1.1448589558930315
0.6511258133509847,-0.0970591467975402,0.9627640816969073
0.5209573003901948,0.060315923066416505,1.0569701800735172
0.15171490909391286,-0.05695808866803945,0.8645225852394167
0.36272258537562324,-0.19544472691962442,1.1716364192861048
0.6290436572627223,-0.36964165580647945,0.9671538471069311
-0.27767256788021305,-0.17645314113849028,1.0353991719858369
0.5352713107030869,-0.33717361115661826,1.0820403760694823
-0.22632114727559896,-0.23973434282883205,0.803665869959339
-0.09709119226442546,0.12982155862251082,0.5559921832709555
0.3777466128642308,-0.325078629502091,0.9654077381620971
0.0870640061446982,-0.2096254240974733,1.0241982231172602
-0.26571499243361707,0.06445700668010108,0.5845511115860134
-0.005784307651748025,0.061513244950222055,0.5845093998807587
0.47183827968917075,0.17403805087520252,0.8055263792566167
0.31527974930459923,-0.317989336519578,0.9040040893300924
-0.2738412675325091,0.013130217030992526,0.6216041565087388
0.5391724188127892,-0.10596049876415703,1.209657952192509
0.5706248540135089,-0.35948849893140045,0.9623869383504486
0.6470328350688577,0.10190695823855953,0.895634657924977
0.6732743160234504,0.07343125131359442,0.94547656005924
-0.24423344136933411,-0.2459598356834055,0.6828233174917955
0.5117386249223582,0.028397307683288874,1.1058242283480058
0.5136675097509783,-0.3387327690234762,1.0040249394635152
0.03688113857161334,0.1860175563960513,1.064476084602548
0.5980268964411217,-0.13325838880018162,1.2056626940999229
0.45564462677691236,-0.33191022232633305,1.0029412044786732
0.2570981045594628,-0.3113381791668706,0.9055348049153551
0.08249986919427696,-0.2512427357348084,1.0262238741287104
0.032336089537131504,-0.2825575670894124,0.8060490480046941
0.5402086712494473,0.4210490816072405,1.1313970936355158
0.10774530462024677,0.11171985246576775,1.0175889455571852
0.19577569156770083,0.06719212267010986,0.6423166796305162
0.65503124585044,-0.09191371973073276,0.9443043924662796
0.512169418841156,-0.3294168401704333,1.1843726753022998
0.6205280554138599,-0.25253499496385257,0.985764752703664
-0.14657564120252767,0.021956005932666812,1.0494094248442707
0.09932165817990947,-0.2853010057826828,0.8998889316313176
0.6034468920271335,-0.21413994330409353,1.1330000538146123
0.009511389958590057,0.24991552805155876,1.0580000502523035
0.6227074853712912,-0.28976486951116115,0.9644506630928968
0.6736136107145106,0.40521238021718337,1.167415918946699
-0.2050297508968633,-0.23881363846467216,0.8609327628264385
0.4091905013493829,0.02703767833583727,1.036836734482992
0.6440034090635871,-0.14996491105041174,0.955000045360066
0.07931490636240637,-0.1769832341575616,1.082411102517792
0.7265008890883986,0.392185048693659,1.0560278279364057
-0.2699616139617794,0.21104218329153435,1.2463512496746953
0.6142148365694882,-0.033354711110016116,1.1230958512736084
0.07237707909176676,-0.2910554672317533,0.7849181300908308
0.03395517151902697,0.19931427411854435,1.0636489585665894
0.43020512822444046,-0.32090917869826247,1.1654571982133868
-0.2662350662737122,-0.2323499569392734,0.8443882489185484
0.1387483289714742,-0.13451163144672354,0.8668710744558984
-0.20880277343027825,-0.2572631364938831,0.6725596810676762
-0.2866835482330876,0.3147785500977498,0.9190000436501577
0.43274011302764787,-0.3314930458452044,1.026179697863725
0.09475950737939742,-0.27653413959375545,0.945224083148375
0.6081559992196286,-0.3550229151763252,0.9848836575081187
0.014889040006064558,0.14093576261216628,1.0630575901750634
0.45509390246968257,0.19101972802357847,0.9452210766416216
0.17317249333088133,-0.21428634085802836,0.7123423157818188
0.47468161575646395,0.19956285440126767,1.0221801476185486
0.6072156281631844,-0.15188711256412515,1.1611238051504187
0.4526355433955937,-0.3294637376750494,1.0870556071879238
0.11501187970968828,-0.13930656159141822,0.9661827779739492
0.39308312773131565,-0.15603677671673233,1.1794411941926206
-0.12419200541708358,-0.24585305426985885,0.9462771415103397
-0.3273080259642334,-0.033093213752962404,1.0042500318737857
0.4308425909171953,0.025200496698298464,1.0301594870141244
-0.3393101802533825,-0.2164855526552075,0.7653433400656864
0.45546463079054966,-0.32570565034917515,1.182737930274042
0.35928907308799474,-0.2996472195672469,1.1871323315180324
0.4143329328813319,-0.12121643701060275,1.1762298963399476
0.37696075805058094,-0.17143714788335382,1.177174515720498
0.057897441909640586,0.05195288152444357,1.0557693953844483
0.355263429406708,-0.3086001857987509,1.084735890683027
-0.08551341634518383,-0.25919152050424776,0.863735301126872
0.4329403200683891,-0.3384911122529466,0.9235815280857091
0.6179135393049177,-0.21478973511103303,1.0255081413612137
-0.24637828045365964,0.20940544195666774,0.6271322494492404
-0.20424043840027148,-0.24615398886958587,0.7825831044333661
0.6974831135861643,0.3220176154420524,1.0455643029083903
0.5861910858980609,0.15970027752512345,1.0282500488392543
0.013940904567385103,0.18494755230475388,1.042879216200769
0.5928503121082752,-0.25477075126362847,1.145189030670513
-0.13127842782870036,-0.2429334391774013,0.9846272397497383
0.6349830623516086,0.08209384492794793,0.98519925248007
-0.344070433959376,-0.2174542621587424,0.8833345169756524
-0.04413618114948668,-0.27649607249038366,0.7427546300993345
-0.36625470706300006,-0.20357635331894314,0.8630000409903005
0.5542614220739583,-0.34709737302988153,1.0449092836530818
0.032481829016483325,0.16717095228755716,0.5859207103315137
-0.30436471072236043,-0.11182080641215036,0.5956814146174477
-0.16608307442089557,-0.235079336387082,1.0244657916978355
-0.20833419463137473,0.29599391966186733,0.8459827037666576
-0.08621378993550696,-0.25517267299657986,0.9043164896780441
0.12268658936424429,-0.27502370258382436,0.8455711445027285
-0.31313218111724345,-0.037515335809825606,0.7467757930457027
-0.33148690726151875,-0.13830162599943407,0.7764000368770212
0.6533565661741257,-0.294068251552455,0.9322242137869243
0.1930061273143293,0.12206013188332296,0.6207081356101593
-0.27400135159497085,0.15205114439063766,0.9934279318006771
-0.2874994018312928,-0.22022966432967686,0.9244852762709246
0.6604303224345633,0.060702243939420863,0.9837434912522576
-0.2367907428668406,-0.21555847515931703,1.0552222723425884
0.028925391206294164,-0.2835061559317988,0.7846436472817468
0.5120438157926139,-0.12910827752956458,1.2128104758693103
0.3365882831195357,-0.30894321905968336,1.0638627158746805
0.09120960896897605,-0.19095762880246725,1.0230271770183095
0.1010817605920132,-0.13071404802309278,1.0225348578131328
0.3530198073143092,-0.30853089036732356,1.1038789176138692
0.6115693061670225,0.08727502252823688,0.9045115158911688
-0.2741153635471932,-0.013866765565115775,0.5989250636834944
0.5761795558758785,-0.36858169031656424,0.9650972680618805
-0.2243346119498164,-0.24552467745656778,0.7428795068295969
0.0801051416567731,-0.23469390471060184,1.0442656630508316
-0.3058951635722448,-0.21252866701914985,1.0041893846752448
0.6306924020676506,-0.2929689044771102,0.9636915345612207
0.03775151800900058,-0.23925627591804421,1.1150000529596582
0.37758614880674324,-0.327343278317531,0.904048654051116
-0.1683428388247263,-0.2598598331918482,0.6870298730759603
0.5943256940082744,-0.056409694523030275,1.224416334073718
-0.38609808344511043,-0.15110506383193345,1.015000048209913
0.4150292001069389,-0.329067976942733,0.9649259601543658
-0.08608591488212657,-0.2550856848671453,0.9247936511801536
-0.5278660420643246,-0.11659879462794209,0.9525581649022026
0.6636282436846332,0.3197271143419288,1.1384583874072027
0.13538089738369927,-0.21330642605404201,0.826826522093906
-0.05118973162082244,-0.2625108078777398,0.8843581815396414
0.4310151151437127,0.08539417158925602,1.0418652734358702
-0.346096446391696,-0.21297797125962425,0.9045892915392526
-0.26329957519275343,0.026237893069326588,1.0123051406745045
-0.06831066236998105,-0.2703967208823507,0.7650408267130882
0.06610596855221472,-0.21210533390133465,1.102205062030597
0.4767478950648833,0.1450147602085065,1.0323683474031613
0.4464957086106517,-0.3207936603994298,1.0472500497417059
0.5717969260788425,-0.05596448315967373,1.2224485754188492
-0.28390017871741124,-0.21801103765444882,0.9644285384576157
0.5536045562670765,-0.15062594487823888,1.2277218720391474
0.10345899706952374,-0.07789943062114979,1.0510000499198213
0.05211982255818955,0.07997863802964436,1.067351149139171
-0.4041548560335604,-0.1482415343521224,1.0152114141222455
0.3965591615144931,-0.31724762788110816,1.0219898896790365
-0.18724235319601557,-0.23951298060329326,0.8826480734607082
0.4328398390114144,-0.33138733893525785,1.0034496869109395
0.5958549490048733,-0.24999368284117662,1.06407392363067
-0.20615440816706526,-0.25159067245541394,0.7043313375664959
0.12795289813564625,-0.11437238719555555,0.9245382324625379
-0.024260136145189393,0.05042347563682441,0.5835385558551209
-0.18464819987647493,-0.23642847018643373,0.9432265490459638
0.396589390527197,-0.13426620476789872,1.175626251612329
0.4134322263747058,-0.15332590577953784,1.1817472178523758
0.4151852827918464,-0.31828740093939534,1.1429945296935213
0.609668605666136,-0.05547469887844483,1.2020195786362047
0.015107442177581741,0.149474550903492,0.5799763691042057
0.5596522735216539,-0.2520003277199168,1.236928630179526
-0.22385267055989763,-0.22794479499794576,0.960368778789116
0.45385769544282034,-0.33657358494862266,0.9645330475244553
0.25204898252545294,-0.312576134702526,0.8663626123323331
0.1851509804275865,0.3707276293263648,0.982202897529325
0.6355411786260557,0.0818934752256101,1.004562131047472
0.6351246765373434,0.423119449740406,1.1655342041167678
0.2777177084999707,-0.30973936924139756,0.9424119495240684
-0.24807568085366744,-0.23244863055068246,0.8656397900921956
0.6500804473494525,-0.25421730013425187,0.9396565217413757
0.7166600422721244,0.32559162694596694,1.0251717155840538
0.41319887170922437,0.19967730372645934,0.9063413128901702
0.43297741411712287,-0.32944063217354075,1.0862733849285482
0.16209812135590024,-0.07200177722798397,0.8031310654003456
0.6318098577838663,-0.17224013654789533,0.964279104292628
-0.3204452963262849,-0.22533189283487656,0.810142895622578
0.12583674708618936,0.05967366419546357,0.9834640965087837
0.6860099920323598,0.07133972291127941,0.9513571880441825
-0.27871473417442844,-0.014227610214892217,0.6238063169982594
-0.06602353855410835,-0.27279164394771455,0.744444216178382
-0.2887028703554875,-0.17455208900688166,1.032450036339235
-0.04430945704808608,-0.07654282366114788,1.0767033276558131
0.01373875357117535,-0.27935741549138027,0.8242081906303661
0.595073300998344,-0.2966251782473871,1.065680250047293
0.4201624169178588,-0.3278888213384404,0.980926947176323
-0.08719763354638427,-0.2720650930947005,0.7138064634525497
0.013384724980133622,-0.2601161690728925,1.084307825839661
0.6653137935593649,0.31505361940816734,1.1368000539951026
0.4899052784953506,-0.21374427127108103,1.2123400518354779
-0.3862759696887328,-0.06757304341893819,1.0001902720846898
-0.38768123749541633,-0.13230835900846652,1.0070698875310105
0.415638964450354,0.0854745617443227,1.088009210292799
0.6128926331657922,-0.3333574663398651,0.9837902879396088
0.0936627041843752,0.2116204373311576,1.024647305721425
0.45410097541030525,-0.32591956935911676,1.1641899479197688
0.47382719575949794,-0.3359602746866703,0.9647740549706479
0.6605578260537435,0.010396134297894963,0.9510421924657781
-0.28411324380820363,0.15252714485611338,1.283643116525329
0.3354599006102726,-0.32414265401073,0.885324331456332
-0.24608930503172413,-0.2426108609365269,0.7245242887196213
0.47858669241643537,-0.3239138016621654,1.1881333897666384
0.6380430891334491,-0.33477579160981447,0.9430692421160064
0.10321597178357639,-0.17555674025194154,0.9924545925936069
-0.2751550763805611,-0.02991260172127835,0.6007503518576985
0.5520023998603543,0.18910848434847038,1.0248140918859316
-0.06616552831379358,-0.23872385885360053,1.0896638983984372
0.4082148271972147,-0.0884611418122322,1.1723101035286292
0.4388455757305592,-0.32461287993918475,1.1597857693725797
0.5337122711117228,-0.09518381854077128,1.2060333282050317
-0.04825873591512783,-0.060836488293352385,1.074967264172957
-0.24637695615464003,0.30733070668644713,0.9444974173416787
-0.27931669714361107,0.20438075663159155,1.2870129399177104
0.708393664183445,0.24351735926188325,0.995000047259964
-0.003525988344304626,-0.2782920837386066,0.7840402708233274
-0.24603221725046126,-0.23939100851722675,0.7845828187765267
-0.06633469210084453,-0.26488556881419173,0.824362290237357
-0.06669799062380104,0.02480140767281825,0.5656769599111853
0.5335855119442696,-0.21657935921783983,1.225559474255982
0.11115093799428226,-0.29973368858123167,0.7868003608401786
0.57049352898671,0.4042930100651261,1.156950999122993
0.1223443426797034,-0.214387333789767,0.8835734057955454
-0.16471444758685844,-0.2300858512213229,1.0641883306827056
-0.0844428760378162,-0.11099312032285899,1.0761602487117732
0.13071492558217682,-0.1910072905678212,0.8659769065601722
0.606326481595277,-0.26290114818552984,1.1350000539096072
-0.3610917685120567,0.1067111334578652,0.9829451594693426
0.5143455600387956,-0.3394240477524458,1.0253158703618863
0.6600097504425209,0.37973818254390773,1.1443713393197543
-0.28664440325829726,0.0004972253680340618,0.6528750310098985
-0.2859495778760866,0.31149614242589657,0.9028513967580215
-0.225952184731663,-0.24591672293857814,0.7244117662540119
0.5473497266630614,-0.3403842406878877,1.0872593109013031
0.5737234111735534,0.026315926320658174,1.1036328520913379
0.641346335827844,0.09198700641158399,1.0777857654777887
-0.2878735496466248,0.027008858805085904,1.0086039343883726
0.4498783232394383,-0.2549104773295262,1.2067847795414208
0.36155785578161764,-0.20455191795785524,1.170000055572018
0.5957949287563339,-0.27512564177024107,1.064251231350224
-0.28508064897804336,0.11210542156294484,0.7176378850521267
0.5540756758331199,0.12117069775971188,1.0511545374474363
-0.16616417376241482,-0.24221457069976196,0.9044469226723455
-0.30626684942490856,0.20857907071369064,0.6490617191404642
0.6396596400005632,0.02578179441498405,1.062035005325029
0.013440057504403483,0.08296061164766592,1.0515880483528535
-0.27883829016978623,0.1383192386399563,0.7188500341435429
-0.34452311537820046,-0.2154561274632021,0.7859269835586189
0.41412110519766854,-0.32376881505381916,1.1052444626000777
0.15504445461573851,-0.21282048402731518,0.7438312446367756
-0.10588855910167942,-0.11651173061579012,1.0725849105299066
0.11271779465780829,-0.2539697810856714,0.9042554698437496
0.39339024427561353,0.005777505211414563,1.0640833906036928
0.1630290766642006,-0.09347754228115242,0.7878227191238302
-0.3272956668375694,-0.13529373654531418,1.0205893042584988
-0.2978698985572118,0.12328647552301489,0.7857879458196548
0.6368026861087788,0.08999396145961201,1.063828134944707
0.015159144593458943,-0.2547466461127112,1.1037896513632506
0.14657650772984732,-0.2730608462276905,0.7402708381950668
-0.27662623900382366,0.09054681396393591,0.5806000275770202
0.12289375670310548,-0.06044157074379766,0.9662495012320771
0.48264202529192946,-0.34579281195953776,0.9080000431276858
0.6505244978168491,0.07767049878860408,0.9454536496741948
-0.2835561024413577,-0.0567797614604587,0.5987110064239458
0.7121438997347518,0.38768331829208835,1.06312284310974
0.07787198094789329,0.15213330128095012,1.0505417165647182
0.49721682410827645,-0.006362648157651933,1.1047500524728093
0.6277382938869608,-0.25621171182261154,0.9837467492099685
0.7043788230853066,0.3140833527179646,1.0356667158581938
0.0736265755910691,-0.28942962098213,0.8246374457615967
-0.3241484730705731,0.20703741607141204,0.9798653219129216
0.10318983430610812,-0.2352709155422778,0.9510435234330109
0.1822339360986395,0.026743302312204478,0.6368137054607018
-0.3255516303123309,-0.09383155895249756,1.015222532046747
-0.06491455297267737,-0.25901429282296584,0.8840315067118826
-0.3279021203630491,-0.21286774012186385,0.9262926988054995
0.6399850689567049,-0.05532308759309144,1.0245951541255696
-0.05153412945902864,0.07572465170434745,0.5961538744696344
-0.2235173257555094,-0.21477708955448546,1.0552752769224958
0.6140232533480996,0.08711089497841476,0.8822374400146892
0.20565066248542196,0.0009166280942548422,0.6242399286397032
-0.34077823629461584,0.15244622476955558,0.9454065666435307
0.3738725375728385,-0.2936733369313788,1.2011691691357675
0.6678368063391542,0.3914154303765617,1.164013213182395
-0.3778593007036068,-0.20641289509006108,0.9057381382583463
0.668760240808085,0.026137586415737647,0.9829794220090354
0.13016601245533033,-0.09118084681054478,0.9232999723811511
-0.20339198086207397,-0.24815838377184085,0.764264338815703
0.1569073905645917,-0.07632953439097181,0.825009937210168
0.6219431478683516,-0.35269978992015,0.9518636815747331
-0.1058976740521011,-0.2430585840320304,1.0445210286330635
-0.34568134429355757,-0.20886115926260626,0.9825852845000975
0.5160982759372073,-0.3279084820190315,1.1619544874243062
-0.3883712761139691,-0.19846166385184233,0.9833915238166734
-0.08767832667940807,-0.17456261025770575,1.0851747323063923
-0.025950698502369196,-0.25709830041601806,1.024574504301631
-0.32536336738622457,-0.21811308619026337,0.8832394773162261
0.6129853695286203,0.4024859857742977,1.1632298877234908
0.17707695960724243,0.1454484798107048,0.6267756691573134
0.05068098295420394,0.16911288773425556,1.0670714048498364
0.6333950968131365,-0.1536005551952307,1.0049427491537084
-0.24968637113861036,0.2451538222644758,0.6758571749586346
0.49464709387104766,0.08305853245857453,1.0425183824811255
0.5567476807412284,0.13202674392645275,1.055777073349887
-0.009078915516707793,0.029363562272632204,0.5749889440700771
0.31385689634484415,-0.3191935894465207,0.9241963579995335
0.6128946303696775,-0.1325005866413797,1.1452153126155973
0.12549158240306185,-0.029404488721764356,0.9785707781869328
0.6526373424187114,-0.0530761161639468,0.9622795073700375
0.12806332028299577,-0.25438117443526903,0.8441483589737273
0.09398825390768126,-0.1752987906520093,1.0238651759317778
0.3402776107880187,-0.31051190350166175,1.1255633463088908
0.6453570128617213,-0.01456475550192025,1.0257792153885628
-0.5265210071564783,-0.0681692065816113,0.9553962259344391
-0.14357400027728706,-0.2586225569083951,0.7445286168555573
0.03192273131225858,0.12043644429332331,0.5870483307001996
0.5847395114406531,0.06893139121979108,1.093500051938463
0.5537156548702858,0.08558146527829631,1.0648185865676607
-0.31954288632709016,0.01115707199437196,0.8111600385280326
0.07860042022702361,0.16040478080673262,1.046150958780411
-0.2859233592660779,-0.22509501154227252,0.8797673290207464
0.008718845156094154,-0.2644124609030444,0.968647104831796
-0.131288220290395,-0.24227722695102358,0.9641732136444678
0.4328644346586861,-0.27569452965585034,1.2056744794216878
-0.2947924900674947,-0.00010291524347265304,0.702235386889743
0.5740505737381507,-0.1952100588546197,1.228502093199743
-0.06713111516147094,0.1674346272125421,0.5600599044214813
-0.2156422939050165,0.004335374934353339,1.0334286205137946
0.5671588002172574,-0.02039206860769562,1.14360329505898
0.09363484259063942,0.1805433039965361,1.0480910497816514
0.6547517145339685,-0.3139034666847766,0.9379436588372952
0.20349247154357364,0.328730506714104,0.8725096568265984
0.5133382545457298,-0.3331823123015071,1.1011756475411294
0.6042035544584037,-0.2623021637810633,1.0665833839933234
0.48009841751013727,-0.10776936942362644,1.1967896401777884
-0.26759619831666404,-0.22045626152803624,1.0061076367203525
-0.2644789120244574,0.025262989798332337,1.0151684272133443
0.6813287882005067,0.34896199138386763,1.0809077232980315
0.5293842313913922,-0.34362387552761287,0.9891667136495622
-0.32957499946376495,0.16586904784193796,0.9847555138201618
-0.14757638588057423,-0.11434336537586093,1.0641007645297824
-0.5081359031839346,0.08733543589295993,0.9465596849283134
-0.39256631294745914,-0.17747969300141986,0.965833379207955
0.5935183203027588,-0.11943842836214731,1.2352887491492548
0.6555057458360712,-0.255595018301401,0.9285442910598012
0.47282193866794636,-0.1166981028300843,1.1871103382049992
-0.4011277734311333,-0.1348813847468134,1.0079393071338052
-0.298032159182365,-0.06870218662248698,0.5930984636335063
0.3538860203888592,-0.3213179703103025,0.9441837569675321
-0.0375205302136168,0.14394322191713724,0.5750000273110345
0.17381449143045524,0.1096543883621921,0.6222651386428263
0.6179653115637822,-0.1792876145587652,1.02589061918614
-0.268851445486148,0.11267368136551204,0.6627113013183662
0.5979443507199302,-0.24967702865047822,1.1265058928718361
0.3948448905455971,-0.19469391946477346,1.1828184580948164
0.5883366184085753,0.10039728606519668,0.9833307796520026
0.45309288630872135,-0.13345608132952572,1.188086028741982
-0.18502437403311647,-0.1351046466800391,1.055742270424785
0.6003715136059669,-0.121307071153747,1.209541724116813
-0.06588057842998758,-0.2667394039088064,0.8043729939992132
0.1486023648778757,0.19054280959056924,0.9626571885809035
0.6094964289701945,-0.21977031036652997,1.0611397706811523
0.1495408385431337,-0.25253670869276507,0.7454814423039373
-0.4074241441798868,-0.053198186529215194,1.0445496329467763
0.43963982707318633,0.16563282825566175,1.0697497739554576
-0.32707943292869174,-0.2196998657702172,0.8659942304749205
0.6433474202723309,0.33390246027794124,1.1750000558095053
0.5106918876184801,-0.3416207228516786,0.9655223626813145
-0.2862793840005356,-0.215952393771743,1.0245921070700696
0.03360615963683374,0.17998599905019308,1.0839196943405633
0.3687245535980575,-0.323862306825899,0.9841667134120751
-0.26072495328508094,0.16454439635153234,0.6634881267520887
-0.24586859743555625,-0.2359360656976321,0.8244555281749444
0.3709769040007031,-0.33073670345011164,0.8708263620726432
0.6146007602759171,-0.2962402543089236,0.9851854107436654
0.5557729680257626,0.350106890735967,1.1483571974011804
0.2210222904060563,0.28382852529055,0.784004268374871
-0.1461815792503502,-0.2448152363697889,0.9043242609394103
0.6614829980657873,-0.09413087052472585,0.9285289041316144
-0.12742934902542152,-0.26125407995807864,0.745902092078693
-0.06726850777838417,-0.2758176740676169,0.7262766325228853
-0.2830210381626832,0.20833730057834035,1.2971208949432669
-0.012106910596763928,0.16059297890772656,0.573250498447307
0.5651314526283799,0.11921353104318136,1.053812550053408
0.6161922251807834,-0.09574088727882005,1.1430182601875032
0.14867710846040438,0.04229384629876627,0.6235845300855279
0.49582924920292476,0.1937649660924791,1.0062222700152132
0.055679625498259055,-0.28547596489849236,0.8428424775442708
0.010228957802843249,-0.00024249605329413604,1.0740000510122627
0.166851693740697,-0.13234410328835117,0.743386434570146
-0.2983680555132431,0.12934449411462462,0.7985178244888245
0.15963721110006457,-0.09489779391010626,0.8046525156978257
0.048056532645196,0.2414756646920216,1.0430381040797039
-0.20807119727685888,-0.24981707835793548,0.7234990478718595
0.4904762973290443,-0.2550456052243858,1.2207480999404627
-0.10614269894223964,-0.25504833692417117,0.8641728203437533
0.5544412998157994,-0.34939598727239624,0.9843053218751915
0.37402582505613025,0.005033177292343365,1.0907654703953669
0.11397659088243828,-0.2967463819970513,0.8045295289766945
0.5750354447974387,0.40917980173616114,1.14561957386176
-0.2656358819066982,-0.22788246248772556,0.8627246104871497
0.16089611803012843,-0.11236346176617937,0.7858781736753638
0.23024259502989777,0.28312359215017757,0.7451814590053295
-0.16458200457444422,-0.2574924841931482,0.7238085709331396
-0.04745910365067752,-0.1509277950758153,1.0838959671464032
0.4940994935460574,0.10056512136396928,1.0404568621683286
0.03956279367908196,0.24920046920180336,1.0866898664298115
-0.29306625765321237,-0.1541272213124117,0.6025368887380128
0.12497947719598175,-0.2502781082996625,0.8636018086956505
-0.0539496659852695,-0.21280451170052647,1.0936471107689774
0.5632059172686641,0.17458680725281142,0.9427321876345169
0.5946728204885071,-0.21518632309151328,1.2035253381086797
-0.22603605920957232,-0.23624771907887293,0.8441058530486877
0.534234484160725,0.029597857246436245,1.104587880747935
0.43502716840658895,-0.1984114629927803,1.19145448567451
0.47406887325876584,-0.25440234024216113,1.219277900155093
0.03346581405788949,-0.2812019345122048,0.8461497530254436
0.1617676865765586,-0.17451330681624744,0.7425262703871512
0.49541159284279096,-0.32822527521998646,1.2050865651750458
-0.284731237262289,-0.23856657594581468,0.6845572634369391
-0.39467320053205157,-0.15678473512519472,0.9836309991009157
0.10268945287579351,0.1440631453817522,0.939272771885788
0.6213054288006512,-0.10767620583034032,1.0517061310344396
-0.5448169727259201,-0.03408241097325961,0.9555405186111418
0.10394144491926105,-0.014331264258994036,1.0745000510360114
0.11328368124434827,0.005135067480300393,0.6047868667504465
-0.24427388147341708,0.3014779265847007,0.8434139095551757
0.5767165397786866,0.17155781513430815,0.9638563366303906
0.6037532975714411,-0.1179173933643732,1.1706667222703497
0.4572275615017374,0.027287571493487314,1.043473101854874
0.658932533823557,-0.17018011568320868,0.955166712034649
0.31357291590982284,-0.31230391183668144,0.9843586669236077
0.5983896702268222,0.36617435325999176,1.1617172335411783
0.6547615577049894,0.007053498849843215,1.0233001669123403
0.4650231790167361,-0.029749702592964472,1.0495000498485751
-0.10610314991040104,-0.2320487628979259,1.0813940201138776
0.6341441385649842,0.046705978806316786,1.1218857072550594
0.10156425549949381,-0.15208049330839615,1.0073245057987386
-0.3177760501770488,-0.1729847784748274,0.69020836611647
-0.2182179795004331,-0.19045648759995398,1.056089793751315
-0.34214055224277296,0.18614063422183502,0.967468587470703
0.13478205664621629,0.18489881636944736,0.6016241244978205
0.5139741132717885,-0.33267719882626257,1.124645886751144
0.5745345151645402,-0.03610855586262959,1.2217208403151891
0.6058482445095467,-0.2345255174115097,1.1053486890055018
0.5521236364004993,-0.17311858530448954,1.2293001474005538
0.17074325910926663,-0.2518955146578841,0.716085490097915
-0.24534859604634845,-0.22930689574214438,0.9040873422384711
0.17345658932996175,-0.07487626708036764,0.7626111990440868
0.4587985100249868,0.17511713652274546,0.78080003708601
0.3335254300981519,0.20368513793891788,0.7419710223931212
0.6653339875503116,0.05072931742131873,1.0035659593209583
0.37332584217144504,-0.2543352772712334,1.1873302295553303
0.1799531800991052,-0.05473066820426481,0.7445202564853752
-0.2242188973114557,-0.22762703476766216,1.0255642430850869
0.43305742014213733,0.2034287011117394,1.102683602158208
-0.25826403040163143,0.21729850211176246,0.9952273199980316
0.03522865462285184,-0.2882477798423036,0.7634569054657998
0.5717164251684225,-0.17872561428499326,1.2364513870857168
0.6297467554386964,-0.23089153627105102,0.9806036774086175
0.46808419948639857,-0.1291504878482862,1.190221830726049
0.3962900514757216,-0.24305934521626998,1.1940000567119569
0.19425713433100608,0.35962387045342203,0.9462073875997797
0.7018205290472025,0.3261484378990906,1.0298353926245338
-0.06612119506161175,-0.2542506130076988,0.9640809454472852
0.5990398596600923,-0.15408573416159332,1.2071635589397536
-0.08135388434560623,-0.26514690673360075,0.8046654845726978
-0.2667087002409748,-0.05439350306297265,1.0258507932188974
0.5710599159799128,-0.3455265019293674,1.1054079472408997
0.6346211910761116,-0.3536956454468609,0.9469967173056747
0.655008396590873,0.02210792120944057,0.9852808115496429
0.03394085124397987,-0.27358620517198085,0.9646463034598088
0.142414966803255,-0.29166554528596644,0.7656846517526832
0.07544138795148433,0.1515703098786534,1.056250050169183
0.43447565174004377,-0.15219431959582,1.1861143440477941
-0.02729315574192004,-0.23260871823343507,1.1037917371314765
0.12477655554641782,-0.13391483894791312,0.9241711399918677
0.6444526333495821,-0.06848592917883287,1.0920000518672168
0.6306505146482398,-0.07183871114114422,1.1238096424606379
0.11763801612798626,-0.276973838615685,0.865908284019476
-0.26777113679775605,-0.07553006936240649,1.023823690601659
0.6738954550939071,0.3238252657020897,1.1238991787203925
0.21321024883246498,0.30689484255684873,0.8214903444472074
-0.30544384999734575,-0.22868496491353194,0.7842810477412148
-0.005448088043658645,-0.11414766114693084,1.0858756130478389
0.5572989760184439,-0.34700659563909886,1.0007847374572028
0.5557881878055833,0.38726207627366954,1.1495090971554645
0.012311219638596396,0.060575149974124456,0.5883199932760838
0.4674013906520962,0.005224230084111624,1.0489586128972108
-0.34430241813464607,-0.21657928468950627,0.8432841046641123
0.0862255670488038,-0.2322643578998247,1.0248792422610915
0.6689758692684052,-0.19243756145957372,0.9361538906187679
-0.29052646087825934,0.13838853970969564,0.7671651879535409
0.3617677419268731,0.20273239832519166,0.8983333760018771
0.2936531783336017,-0.31640238789135855,0.9040772329082581
0.14460390391715908,-0.1730959591975061,0.8215553420520861
-0.22605974901556847,-0.23345712560718204,0.8842301015396445
0.14409432444938935,-0.01886779155300372,0.9150000434601679
-0.06552943706793309,0.12490466174498528,0.567670139359215
-0.18546483138370182,-0.17315255967244195,1.056746137987286
0.5853480196626469,-0.25282055570978634,1.1854006410988283
0.45383322725774544,-0.3284863176944425,1.1416581578181644
0.4728906212425747,-0.3393508790065317,0.9453898330017199
0.6843630431450087,0.4289599753234397,1.1403333874962602
0.1271141910870352,-0.15253524634751317,0.9037660171854958
0.6043912826585721,-0.039297156766409325,1.2150000577094033
0.6765935637942238,0.41040610191918836,1.0737500510003883
0.7227690426425297,0.32003905044281344,1.035000049159862
0.01189256736175918,-0.2812006024356648,0.7860578820417917
-0.5250893985855086,0.02863141933367269,0.9466856202185623
0.6320091320036341,-0.19709381653682878,0.9620871999033873
-0.2476869597884276,0.24236399346298068,0.9889044840041047
0.1372240781634939,0.051605530730845034,0.6345000301371329
0.4320750731093301,0.190016585809742,0.8852313471608694
-0.33694258192775756,0.24622872027736933,0.6930000329157338
-0.07167338338366781,-0.1347310845918591,1.073464839719236
0.5165378275120929,0.3645736367891449,1.1599572262939084
0.09192469486359697,-0.05783840670816416,1.0973239478322192
-0.3392328872242994,0.16818123727060974,0.9470209179969508
0.013524319233010933,-0.28561093357611056,0.7506450255322663
0.6513042751989152,-0.33671076023702146,0.9433054481253511
0.10671424161580403,0.17944371184604666,1.0478730656443136
-0.2601985061421055,0.24314390240061556,0.7056684545700831
0.05180378856913301,-0.19156432494449657,1.1063543903486344
0.6366986143359122,-0.07439160442915718,1.0662389395325185
0.606566567478867,-0.31567213199550964,1.0160455028050241
0.399237670879465,0.010103995639309221,1.0447009014281325
-0.30818703302613143,-0.23187695061681576,0.6644605436840356
0.4743962520235348,0.152041057429404,1.0354216692265081
-0.2969628404719133,-0.15701237134950305,1.035000049159862
0.296235700894665,-0.3090564321346234,0.98344238598093
0.4097653136691739,-0.32388369293690566,0.983138141934649
0.5961131618018466,0.16403923022054956,0.9236318868547903
0.5754524526529046,-0.3559899856841892,0.9825976657185016
-0.2656192489040341,0.3003393647297204,0.8238152047605907
0.12481425235359553,-0.1918834305392354,0.9022692736247196
-0.359176026179356,-0.20524745102327968,1.025250048696762
0.45331118191114095,-0.035663825860809586,1.1723801726441319
0.02570390636698771,0.1915629844592315,1.0506646652885068
-0.30346321872259313,-0.2282185352904135,0.8043512472386988
0.07144875201526736,-0.1565318909223065,1.0992207878615592
0.021348269913024385,0.13455890357992836,1.0787000512355007
0.49474314322561097,-0.338126221207211,0.9638344064321422
-0.30733898012831856,-0.03138094936705641,1.0080112002342811
-0.2978553223794197,-0.07631111810149821,0.6639108889058685
0.4520899903136159,-0.15422008706940346,1.1888779070253361
-0.3679198655745401,-0.21015364941554882,0.9250482144556377
0.03235246901845683,-0.2702126218079847,0.9843245716851897
0.07234136121674095,-0.2828466426411516,0.8859998605286301
0.14454829981428502,-0.07836878649127069,0.8768000416457653
0.47178315212956695,-0.3327239453445501,1.0657764998970274
-0.05696787219808166,0.20910591613605906,1.028400048846379
0.6729870966591859,0.42219897507797083,1.175180412960929
0.10505127973484592,-0.0876877928578169,1.0373710170144124
0.5335857838150576,0.029842737482200354,1.0836256147950156
0.6138852851589086,-0.05198384387910219,1.1432143227607716
0.11722380405076586,-0.2563418520430686,0.883025690303054
0.6592090110443354,0.06651718034525303,1.0052559677299782
-0.10632284918410995,-0.09313073896688148,1.0717801007210594
-0.006055337468528433,-0.27385950808583903,0.8442015971573837
0.5919379173453213,0.12352577281314335,0.9464378799783897
-0.30514436762722624,-0.13426420561314167,0.5963207719799667
0.09115990917595487,0.22518166547995813,1.0425494025276432
-0.23853324180407737,0.21512257638445548,0.5996000284794718
-0.26331586045758604,-0.1330554847312088,1.0358818733369972
0.5887347495924012,-0.33428575481762784,1.0642619925575272
0.14189729459468087,-0.07105139411226351,0.8857549625999188
0.6751632066538612,0.02571493953061311,0.9432117789863653
-0.2895253487695853,-0.014427373799939344,1.0118045303813665
0.03391168592603863,0.019220384201864095,0.5839302079153754
0.2148617019696638,0.14619183408279818,0.6245978755329864
0.43178619512078004,0.20299134982345035,1.0851583848755886
-0.3076238505585338,0.20442332282302567,0.9853812422432973
-0.2065042689330997,-0.22971893542635635,0.9626404930473825
-0.18397526645188575,-0.2381707625822965,0.924971789902257
-0.344349414478546,-0.21083816876387812,0.9261048141739515
-0.10761915527676412,-0.2602284800237235,0.8042180777380487
0.39528033157238496,-0.17143299077590632,1.184289930858901
-0.16365719927322253,-0.24804954234805307,0.8440653264223109
-0.23171702788634577,0.2276572593772288,0.982128935537508
0.5347042093132434,0.0018311080461721405,1.145709295623421
0.6330532039716711,-0.03205417331584048,1.064650226779934
0.7160214553285521,0.40298071661871004,1.067232937842386
-0.5236656013522435,0.14443167778762014,0.932408876511729
-0.22791226839318682,0.2985873413242909,0.8460893712734233
0.5479702588692108,-0.3411223211194634,1.066916717342489
0.2717369246737986,0.2442617008507219,0.6817444543716984
-0.026305295443496125,0.16088066841426882,0.5713266118081121
0.1699174838158578,0.13063159241977657,0.661469811637909
-0.007658768533704521,0.06060996084452384,1.0525426906857336
0.4503458225910219,0.17595080119958245,1.0598750503413612
-0.32349384181978513,-0.22792013733656236,0.7059683041311522
0.010348713699237011,0.08360805594548618,1.0568548413527001
0.06356416256329514,-0.07439214028557366,1.0950000520097092
0.6913128252005512,0.3052170110670305,1.0464851235543284
0.13254566012333838,0.14707149569951922,0.6060475492873489
0.16492904921372084,-0.0815604665081656,0.8010302039594102
0.21540064533997594,-0.05757456751758643,0.7014326468213451
-0.24549869855651388,-0.11767056026406512,1.0375126685778207
-0.26418640067610033,-0.2257267529747968,0.9025261712227666
0.291131911382339,-0.3202633780308927,0.8670919312527889
-0.3670542462129719,0.11573441182473768,0.986800046870485
-0.14602420185404866,-0.19916366811925232,1.0688313007667603
0.3768977634060417,-0.016873916589511432,1.1029924333417078
-0.06637734276164384,-0.25250364761831884,0.9841078570291989
0.6265890272917609,-0.09227220057374919,1.103502097785043
0.11612451612421311,-0.052263286188855784,1.003715487345365
0.029939772798958108,0.2457561479094097,1.0450866237544882
0.05386295766935931,-0.27656058054185634,0.9440999987555309
0.5963919984880256,-0.2732055203582182,1.1221203637841626
0.6220465986826162,-0.1776919718626331,0.9861422984873777
0.43404393699490396,-0.33868635020240323,0.9432921783240469
-0.28346157418418544,0.040923103941467434,0.6828308166468141
0.1442815196903523,-0.2106552279738176,0.7971912143351374
0.6870396103084623,0.41882252528884034,1.110333386071337
0.6557141595411792,0.40268182436043903,1.1765353122926825
-0.08745808930815942,-0.19484852321019103,1.0838422361003122
-0.28766054638825955,0.14457718146720894,0.9920952669463468
-0.5051231520444327,0.12456085613751197,0.943013877497417
0.11118481691898009,-0.19444563355756914,0.943631750958075
-0.00476480588847413,0.1671539717468312,0.5766515884930924
0.6536554078180936,0.07737852952352023,0.9995245851704584
-0.2493227391480887,0.1502688954796568,0.6025038461321972
0.3922582391714224,-0.3304651537875045,0.9248773888066615
0.33072026885836425,0.22006189064706883,0.7374761303139254
0.01344455515725394,0.13140913314697977,1.0577457004233726
0.12439429484765363,-0.2850972230796962,0.8372353338841897
-0.3260500004075967,0.0024644274165376463,1.0037771703183644
-0.29392592713769516,0.10387021748329583,0.7470000354805961
-0.24604204651030565,0.30894084218338425,0.9650378529949559
0.31623347165112803,-0.30811015683274523,1.0600224862457999
0.6419153911442477,0.3630141837285603,1.1758182376665487
0.15963240939397932,-0.23447588436868466,0.7220099047443425
0.6833128862584297,0.2637506983035542,1.0221627469628214
0.14480233522206762,0.08931038950785757,0.9156250434898539
0.6515072197486622,0.02963957306950187,1.043223025459738
0.5943005149055037,-0.3541720865610995,1.0047618843143233
0.2821600490132136,-0.30890664432551646,0.9629074531430551
0.41391183645035384,0.1050677204757059,1.1050026287583934
-0.3866030465824677,-0.19875537014605418,1.0058778682315634
0.354731540245961,-0.30816335889508545,1.1412443295685133
0.7260317235776427,0.32095480843938873,1.0069683017966795
-0.22461156089920692,-0.24874228443978838,0.703440537936501
0.49253524725571785,-0.1727990356040558,1.2105228082943351
0.20987354956901966,0.010909186515279584,0.6353968555765551
-0.0260023278841334,-0.27249309102221486,0.8041676900842554
0.4541879898214963,-0.23318290881453518,1.2076570313559
0.5745370002296221,-0.347278690029262,1.0641943911002563
-0.2672972480937284,0.22821213473374988,0.9886937525839481
0.09340651120542734,-0.15596157738849525,1.040671607400261
0.058884379978757825,0.0831049752034226,0.5976078003916998
0.6549033751117135,0.028348311166021312,1.026878063244041
-0.30578728760894663,-0.1748599941499768,0.5958039855337071
-0.16574902382317935,-0.10003001010226399,1.0568823588455662
0.5778581538428316,-0.17344833729712578,1.2284691319320167
0.3944111139293983,0.1926048317218807,0.7517066798482939
0.6560840176091873,-0.13757512268193375,0.9133489422060536
0.45365277921159475,0.14549740304227535,1.0302459892246962
0.5896421361194023,-0.22961107048335494,1.164857615062652
-0.008296411382192724,-0.03174521165760226,1.0733932486578597
-0.36536288064104167,0.0642922823783726,0.984923272708678
0.5971198679772165,-0.29879612426745344,1.0013070965440012
0.6044158875329668,-0.29290353163713123,1.017000048304908
-0.048809541147931186,-0.09555463462716174,1.0770302332514026
0.01161922522523322,-0.1943461941315016,1.1013867627392413
-0.4238450205037633,0.19384374006376426,0.7702917032535577
-0.3258521594154938,-0.20901904611487485,0.9845433631283059
-0.16518797069910127,0.11072667330803022,1.0049739971639007
0.6116940364509301,0.12558550665003085,0.8830118015588022
0.686388665322812,0.40429270771768366,1.1027419528876337
-0.33129837978109267,-0.22075619754221584,0.7246509182574539
0.4936057471257324,-0.13468620066109274,1.2048315421418618
-0.231063156233641,-0.24404784913894606,0.7647688300308622
-0.0018643754908609029,-0.26476129941933757,1.0002000475069508
-0.3068589967090659,-0.1974774761761397,0.5964090537392887
-0.12510498123193903,-0.199147341037376,1.0762335676018655
0.67330717314047,0.3099420848012657,1.1246803647747596
0.14329273019113442,-0.09135591202338589,0.8706389302420171
0.3534320711513065,0.20644088775499939,0.7441246165493326
-0.28645389158440315,-0.09317553266025934,1.0242757787124834
-0.22823474116956996,0.3007285522195841,0.8842001465865009
0.5715702626098919,-0.09192733667345168,1.2130829662748035
0.4646545697419202,0.07508038434381345,1.0337500491004903
0.3747092296599699,0.20615386667876173,0.7469913946195492
0.6050212557617933,-0.1695265802203144,1.1818486275633666
0.14465129248635528,-0.1319049060742838,0.8426428971662452
0.05400044970814811,0.006696350349375376,0.5888205434415091
-0.2260256350206087,-0.23207834489212886,0.9045341741687396
-0.29664845657785194,0.002278959373513002,0.7044464620308385
-0.027965096294527106,0.1261535855822873,0.5734007433991405
0.43484037954797433,0.18622680116336415,1.0860420174671797
-0.3207074835368261,0.06129650580856435,0.994592152503748
0.13199918484473377,-0.019573265918406992,0.9612722087785451
0.5013728973028853,0.008634740581357414,1.106351904400745
-0.32493197588615136,0.0689623529576174,0.9916897297170492
0.6130402368667359,-0.17135474699334063,1.102767675292039
0.598940051535244,-0.2707408560888468,1.0830231066490859
0.632244193533077,0.07917339174772228,0.9041530732479949
0.11095936243532234,-0.13432520029441708,0.9832870753056955
-0.3052785370575002,-0.22947904396581945,0.6054095525649332
-0.18571083191722698,-0.24936053121411117,0.7844523643683007
0.5692522405089644,-0.32477862989591255,1.1802432993017893
0.4946559572589874,-0.3366381981814357,1.004132803826503
0.1823961558709549,-0.07184835025329016,0.7246685685002072
-0.39772104446671497,-0.06365840901302258,1.010750048008049
-0.5297166565996739,-0.09622055453595957,0.9558136746489602
-0.3855827706750062,-0.07507188948619584,0.9887451586186462
0.6542580012634449,0.006038656125647022,0.9634671844625355
0.1613295631889274,-0.2127232090420513,0.7235775052958507
0.49080885796789203,0.00456640306944705,1.0878631469088196
0.033916701207804455,-0.27557435398084706,0.9243933768664706
0.21236318834349788,0.2922688841294946,0.8185816178279071
0.0674700954810847,-0.26691808851316595,1.062063818561264
0.09459487241797589,-0.13773144730386375,1.046699256064751
-0.22510864700533423,-0.11364389991368111,1.0453931363667073
-0.2452665394733307,-0.048545948399199734,1.0361483250764714
-0.1859906256467596,-0.25443322351404185,0.704228228810219
0.4544590894362029,0.18462270903822683,0.763191352367646
-0.3056307550355954,0.22462836511772746,0.6514164710361504
-0.0065846663287335025,-0.2330639394806334,1.1032198471996335
0.07316933118405194,0.18523001527001587,1.0640268794651
-0.2837757333781468,-0.21796110513208075,1.0043069537057636
0.6375378343638354,-0.06982720467273926,0.9419524824721895
0.5691565691412162,-0.3133872122944536,1.1851796037094586
0.6504480129837954,0.08491749298556045,1.1029418302674887
-0.04646496854351587,-0.1988321781851382,1.0924460288998938
0.6680901996178636,0.3279557602960603,1.1438337917029247
0.4339633586659359,-0.3352607391027935,0.9644353660133769
0.6143906619142575,-0.3169160354726092,0.9841328789712961
0.11867468190231747,-0.15453807670044567,0.9423106285324109
-0.15833474627130267,0.11017633297900012,1.0174018340382776
0.7158197910373661,0.28322219153367123,1.0053097610592154
-0.08719263907797944,-0.21364129746126168,1.0857246634107418
0.45515729983958925,-0.3286093043857929,1.0418498390474993
0.47209692012536825,-0.3360614766997807,1.0062459005524662
0.3949783008656388,0.19506265822433994,0.8447857544108826
0.033768271854326036,-0.0101785470690638,1.0806280034062667
0.43404588577089,-0.18806076082261738,1.1986961575604669
-0.1261504340358541,-0.24923329341033626,0.8839962836333495
0.11523178062772564,-0.23509422465107047,0.903621145647381
-0.0875492870691446,0.15168333024948563,0.5523566224595561
0.35591870455577296,0.19313814953727865,0.7656040269079735
0.7115814673060644,0.30899888092704864,1.0222599048008214
0.08243870701223854,0.1520886473344873,1.0311389378653582
-0.22669778174709146,0.3016827242794358,0.963907294578095
-0.3647945405757569,-0.20604300990424054,1.0030566914818866
0.21257023904396624,0.10572102395113372,0.6230262140839029
-0.2666786999763495,-0.11417679109033367,1.0319150792729292
-0.13148598793723354,-0.2397659551396744,1.0042256296041725
-0.2383251263128756,-0.06923686608858381,1.0353626578727373
0.19898094454846074,0.07558312032106734,0.6650000315858051
-0.31130496617939407,-0.006089378705646525,0.7563474935516952
0.6845534278282538,0.37933745914051986,1.1296555158406292
-0.2511510888755661,-0.2440767205577337,0.6886620045406744
0.1232438578121718,-0.2360149978199828,0.870714327070995
0.6240771749152009,-0.10877525656828263,1.117333386403819
